0.999999 0.000888675 -0.000675158 -3.40761e-05 0.0129502 0.000389617 -0.0878166
0.999987 0.00484821 0.000571316 0.00136887 0.0265306 -0.0770209 -0.125003
0.999981 0.00560623 0.00226961 0.00131155 0.0389275 -0.0881594 -0.125078
0.999977 0.00553619 0.00274887 0.00267917 0.0538404 -0.114503 -0.05196
0.999975 0.0044324 0.0039665 0.00389106 0.0592579 -0.133474 0.0740755
0.99998 0.00526238 0.00111608 0.00332653 -0.00131071 -0.165535 0.0732651
0.999977 0.00640437 0.00199057 -0.000226778 -0.606807 -0.159774 0.175872
0.999755 0.00271673 0.0146385 0.0163495 -2.7361 -0.706191 0.555565
0.999849 0.0157784 -0.00722024 0.000764633 -4.50161 -0.495758 0.187621
0.999861 0.0104393 -0.00389687 0.0123697 -7.12591 -0.829377 -0.226809
0.999531 0.00444602 -0.0275653 0.0125487 -10.4597 -0.956956 -0.934666
0.999495 -0.000255021 -0.0286563 0.0137409 -13.5156 -0.992501 0.142435
0.998884 0.00555665 -0.0463763 0.00695193 -16.8169 -0.959227 0.630963
0.99787 0.00454319 -0.0558152 0.0334682 -20.8902 -1.74694 0.89194
0.995879 0.0101324 -0.0841433 0.0322738 -23.7021 -1.80213 0.41032
0.995759 0.0074871 -0.0875786 0.0271823 -23.736 -1.64638 0.378109
0.994642 0.014327 -0.102076 0.00794324 -21.1004 -1.14951 0.137661
0.99687 0.00725544 -0.0787162 -0.000977157 -18.4035 -0.700063 0.2531
0.999762 0.000249025 -0.0218335 6.72809e-05 -16.4367 -0.624384 -0.169987
0.999935 0.00699529 0.00537812 0.00718393 -13.7156 -0.788218 0.044172
0.999459 0.00768867 -0.0227034 -0.0225126 -10.5834 -0.0908763 0.556431
0.999796 -0.0112209 0.0166365 -0.00218341 -9.20018 -0.65298 2.04448
0.999857 -0.0106558 0.0109034 -0.00735745 -8.42362 -1.72733 2.12077
0.999972 -0.00247372 0.00618413 -0.0033634 -8.00654 -3.48796 2.08479
0.999916 -0.00127548 0.00423583 0.012159 -7.65186 -5.21666 1.96558
0.999844 0.00095052 0.00771753 0.0158445 -7.5405 -6.13504 2.03767
0.999841 -0.0111542 8.98731e-05 0.0139278 -7.65548 -5.31726 1.86306
0.999135 -0.0398653 -0.00477415 0.0107981 -7.91598 -3.68551 1.58288
0.998438 -0.0535248 -0.0136838 0.00832453 -8.12881 -2.13446 1.307
0.997808 -0.0651201 -0.0117903 -0.000424247 -8.22713 -0.750478 1.35205
0.996898 -0.0776008 -0.0130692 -0.00144692 -8.2809 -0.112904 1.40864
0.995925 -0.0863845 -0.0254459 -0.00481628 -8.34397 0.215817 1.36931
0.996243 -0.0806597 -0.030302 -0.00872162 -8.51233 0.0357764 3.09459
0.996209 -0.0829869 -0.0260787 0.000275936 -9.78372 -0.606565 6.63331
0.995575 -0.0821833 -0.0452041 -0.00576121 -10.3523 -1.00511 10.0501
0.995882 -0.0821036 -0.0379131 0.00644675 -11.1093 -1.64845 13.056
0.995663 -0.0806232 -0.0456086 0.00865536 -11.1867 -1.87258 12.7152
0.995872 -0.0766843 -0.0485586 -0.000400391 -10.7498 -1.6563 9.81795
0.995885 -0.0831386 -0.034538 0.0103645 -10.8958 -1.51968 6.47156
0.99673 -0.0735538 -0.0327378 0.0068835 -10.8431 -1.34096 3.34131
0.995185 -0.0880772 -0.0424301 0.00700834 -10.2581 -0.788082 -0.0160173
0.995504 -0.0841421 -0.0422758 0.0101874 -10.918 -0.767292 -1.93631
0.996773 -0.0776384 0.00434398 0.019902 -11.7075 -1.01904 -1.25353
0.996069 -0.0777427 0.0353559 0.0234904 -11.7459 -1.09221 -0.474504
0.994969 -0.0765814 0.0594852 0.0251763 -11.6357 -1.08723 0.0665223
0.993762 -0.0804696 0.072393 0.0268557 -11.5073 -1.08253 0.341685
0.994748 -0.0846748 0.053234 0.0217492 -11.6431 -1.00793 -0.059887
0.996129 -0.0866161 0.00741025 0.0129976 -11.8691 -0.91807 -1.04536
0.995549 -0.0884968 -0.0317791 0.00643334 -11.9968 -0.873492 -1.91484
0.994091 -0.0872143 -0.0646348 0.000268728 -12.0914 -0.806646 -2.66725
0.990852 -0.0882457 -0.102096 0.000648914 -12.0742 -0.888502 -3.51244
0.988341 -0.0884333 -0.123881 0.00396791 -12.0333 -1.02295 -4.05995
0.991656 -0.0812537 -0.100056 0.0021082 -12.0868 -0.903018 -3.59021
0.995254 -0.0669468 -0.0706172 0.00107708 -12.0648 -0.775901 -3.02266
0.997362 -0.0437232 -0.0576252 0.00599324 -12.013 -0.886487 -2.86086
0.998414 -0.0215309 -0.0510319 0.0100348 -11.9692 -1.02572 -2.82738
0.998686 -0.00167464 -0.0488017 0.0155682 -11.9351 -1.25888 -2.84345
0.998483 0.0158882 -0.0481213 0.0215156 -11.9457 -1.45467 -2.84775
0.998238 0.0257992 -0.0480444 0.02339 -12.0114 -1.51964 -2.84081
0.997859 0.0369923 -0.0482548 0.0240723 -12.0707 -1.55086 -2.85956
0.997113 0.0502099 -0.0494945 0.0282005 -12.099 -1.66359 -2.95361
0.998227 0.0147861 -0.0504012 0.0279833 -12.182 -1.73172 -2.8554
0.998328 -0.0193956 -0.0465105 0.0283109 -12.1617 -1.75605 -2.61127
0.997022 -0.0577636 -0.0446999 0.0247273 -12.1673 -1.66654 -2.40446
0.995329 -0.0830159 -0.0439917 0.0222176 -12.2049 -1.5591 -2.27043
0.993294 -0.104323 -0.0446797 0.0220747 -12.2445 -1.4902 -2.15724
0.994945 -0.0898274 -0.0405244 0.0193207 -12.2361 -1.44831 -2.10952
0.997076 -0.0648013 -0.0404832 0.00134322 -12.3076 -1.20228 -2.21691
0.996115 -0.0678782 -0.0465384 -0.0313202 -12.462 -0.505918 -2.31788
0.993964 -0.068854 -0.0519814 -0.0677648 -12.4945 0.302171 -2.41819
0.991636 -0.0643761 -0.0583503 -0.0954367 -12.4231 0.868626 -2.6321
0.986928 -0.0628022 -0.0702211 -0.130759 -12.3667 1.691 -2.9727
0.982713 -0.056607 -0.078165 -0.157991 -12.3405 2.27935 -3.2208
0.977428 -0.0597111 -0.0779494 -0.187065 -12.2117 3.01202 -3.21206
0.985613 -0.0633921 -0.0838242 -0.132369 -12.4341 1.67039 -3.27764
0.992822 -0.0732306 -0.0778976 -0.0536142 -12.5167 -0.146234 -3.05842
0.994316 -0.0752749 -0.0752784 -0.00124718 -12.4111 -1.37322 -2.93555
0.993246 -0.0765148 -0.0745833 0.0452156 -12.1965 -2.40516 -2.787
0.991368 -0.0723363 -0.0722176 0.0821019 -11.9824 -3.24392 -2.71283
0.986843 -0.0709383 -0.0713372 0.126568 -11.6511 -4.18014 -2.65561
0.979051 -0.0725104 -0.072026 0.176108 -11.1083 -5.22344 -2.56729
0.970785 -0.0729238 -0.0742571 0.216203 -10.5604 -6.01438 -2.47901
0.987976 -0.0495034 -0.0489117 0.138061 -11.4661 -4.38591 -2.26867