0.999995 0.000930116 -0.00181575 0.0024133 -0.00444 -0.026802 0.002745
0.999991 0.000541263 -0.00410199 -0.000920697 -0.013573 -0.004198 0.005283
0.99999 0.000911286 -0.00336399 -0.00276402 -0.016582 -0.000248 0.017033
0.999988 0.0022635 -0.00354292 -0.00269147 -0.016304 0.001264 0.012699
0.999983 0.00261445 -0.00322401 -0.00402387 -0.00896 -0.014345 0.014389
0.999987 0.00180809 -0.0046994 -0.000882469 -0.002712 -0.003404 0.018763
0.999985 0.000120251 -0.00366704 -0.00402285 0.001811 0.043294 0.017166
0.999843 0.0142159 0.00362098 -0.00994968 0.001885 0.166105 0.028251
0.999847 -0.00766973 -0.0129438 0.00895419 0.004246 0.256185 0.041492
0.999753 0.018576 -0.00852875 0.00874952 -0.029257 0.418671 0.040788
0.999473 0.00807659 -0.00605178 0.0308571 -0.025649 0.565385 0.059596
0.99938 0.0129256 -0.0016192 0.0327024 0.030062 0.732457 0.05698
0.998888 0.00822657 -0.00101693 0.04641 0.077203 0.908888 0.070828
0.997103 0.0401098 -0.00986673 0.0638722 0.089449 1.12565 0.085835
0.995671 0.0266594 -0.00981014 0.0885029 0.093208 1.24563 0.086369
0.995635 0.0281907 -0.00954558 0.0884565 0.092416 1.18232 0.092509
0.994146 -0.00687252 -0.0104442 0.107316 0.098612 1.02356 0.077014
0.998018 0.00307544 -0.00554191 0.0626015 0.060123 0.902043 0.061318
0.99989 0.00148619 0.00413686 0.0141603 -0.018423 0.798055 0.058649
0.999986 -0.00328536 -0.00294263 -0.00292331 -0.002973 0.648491 0.059066
0.999589 -0.0230341 0.000161589 0.017041 0.046241 0.507772 0.050293
0.999728 0.00093998 0.0142198 -0.0184805 0.066949 0.457821 0.055847
0.999827 -0.00814568 0.0146565 -0.00802352 0.081268 0.426399 0.139149
0.999982 -0.000392426 0.00274297 -0.00525899 0.074447 0.396296 0.228536
0.999854 0.01084 0.0111982 -0.00705212 0.076475 0.388942 0.293411
0.999843 0.0161289 0.00289525 -0.00677705 0.084827 0.386186 0.311654
0.999743 0.0119487 0.0192242 0.0015916 0.068765 0.389467 0.257117
0.998728 0.00751105 0.0493983 0.00671029 0.06075 0.416192 0.179414
0.997965 0.00666126 0.0611029 0.0169419 0.049593 0.399843 0.09633
0.997443 -3.43259e-05 0.0702323 0.0131946 0.047902 0.422728 0.044372
0.996889 -0.00553024 0.0776223 0.01252 0.046517 0.422072 0.019967
0.995826 -0.0069996 0.0846846 0.0333287 0.069433 0.409042 0.007004
0.99663 -0.00253407 0.0780562 0.0251063 0.200744 0.42726 0.025731
0.996111 0.00334406 0.0816024 0.0330642 0.386373 0.49354 0.045238
0.994984 -0.00268519 0.0856378 0.0516254 0.577826 0.522876 0.073979
0.995688 0.013538 0.0845944 0.0355925 0.691727 0.561647 0.088584
0.995289 0.00505922 0.0809667 0.0530984 0.640258 0.562392 0.091232
0.995877 0.00602518 0.0770471 0.0474921 0.474718 0.540452 0.08264
0.995984 0.00995187 0.0821885 0.034089 0.279732 0.544365 0.079635
0.996738 0.00790259 0.0733972 0.0326305 0.127411 0.528354 0.07658
0.995362 0.00513963 0.0854233 0.0439347 -0.035764 0.513977 0.04575
0.995842 0.0183956 0.0829366 0.0328887 -0.103864 0.558378 0.041683
0.996688 0.0180263 0.0786796 -0.00992005 -0.110583 0.586228 0.055182
0.995841 0.0191348 0.079209 -0.0407494 -0.099241 0.593221 0.049811
0.994728 0.0201328 0.0811141 -0.0594175 -0.102272 0.602306 0.044713
0.993826 0.0186962 0.085704 -0.067938 -0.104311 0.610389 0.044602
0.995258 0.0124021 0.0882642 -0.0389396 -0.099468 0.614097 0.048375
0.996038 0.00956153 0.0883542 0.00330159 -0.103978 0.606461 0.053679
0.99497 0.00686908 0.0909307 0.0414582 -0.10484 0.595643 0.056694
0.993276 0.00391743 0.0889706 0.0739712 -0.109464 0.603096 0.058171
0.989967 0.009811 0.089125 0.109203 -0.117841 0.608266 0.061719
0.987893 0.0146916 0.0906478 0.125036 -0.119456 0.61235 0.055162
0.992538 0.00851075 0.0791351 0.0923778 -0.118386 0.606786 0.060407
0.995612 0.00559982 0.0641511 0.0678936 -0.116265 0.601442 0.05925
0.997639 0.00656227 0.0385906 0.0564283 -0.113709 0.595589 0.05697
0.998512 0.0106235 0.015767 0.0511182 -0.113883 0.592704 0.058845
0.998665 0.0155906 -0.00263506 0.0491672 -0.111943 0.595283 0.072933
0.998477 0.0188976 -0.0174514 0.0488081 -0.105877 0.597468 0.077558
0.998225 0.0221373 -0.0285775 0.0473231 -0.107382 0.605367 0.078427
0.997836 0.0224507 -0.0383596 0.0484585 -0.103712 0.606677 0.089595
0.997596 0.0237608 -0.0433262 0.0485816 -0.10179 0.603027 0.08689
0.998384 0.0257802 -0.00683659 0.0501801 -0.106297 0.607098 0.083146
0.998142 0.0270362 0.0270471 0.0474375 -0.110151 0.609884 0.075391
0.996446 0.0256373 0.0650493 0.0469821 -0.111163 0.610016 0.077972
0.99471 0.0237551 0.0880891 0.0471997 -0.111788 0.618221 0.070019
0.992028 0.0263356 0.113204 0.0487025 -0.112619 0.611946 0.06543
0.995866 0.0201907 0.0779321 0.0420706 -0.105747 0.60772 0.072372
0.996916 -0.00618326 0.065981 0.0420361 -0.100559 0.620248 0.081702
0.995683 -0.0389307 0.0710592 0.04528 -0.09894 0.605873 0.079793
0.993623 -0.0724173 0.0711091 0.049114 -0.09548 0.605141 0.085086
0.990866 -0.101357 0.0698949 0.0550132 -0.099209 0.597932 0.083607
0.985663 -0.137823 0.0725508 0.0648778 -0.099169 0.598137 0.08665
0.982688 -0.156766 0.0692015 0.0704201 -0.106448 0.608062 0.090449
0.978134 -0.181544 0.0755542 0.0677307 -0.093662 0.595564 0.080048
0.98808 -0.109144 0.0772296 0.0762957 -0.096712 0.593475 0.08897
0.99374 -0.0306462 0.077399 0.0745087 -0.103415 0.599145 0.088626
0.993981 0.016668 0.0746137 0.0784664 -0.10138 0.608338 0.094286
0.99251 0.0603242 0.0717448 0.0783449 -0.105109 0.613586 0.092729
0.990205 0.0947219 0.065922 0.078586 -0.10726 0.630587 0.09036
0.984256 0.142972 0.061973 0.0834233 -0.111226 0.633016 0.092881
0.975152 0.195045 0.059852 0.08634 -0.109447 0.624421 0.101571
0.975938 0.197035 0.0507177 0.0784183 -0.112507 0.624831 0.114412
0.990046 0.123051 0.0436758 0.0525372 -0.110212 0.624521 0.1059